X,Y,Z_Height,Road_Condition
7.379173933540254,9.638176611881805,0.02140878918051814,0
5.214490241668801,5.389808744501206,4.427193821811529,1
0.6845871933357806,2.878795033348446,0.33245397587383263,0
3.7111293843012785,1.2027096312860686,4.7652329307992245,1
9.207666084633573,7.035283401815304,1.4091283954984235,0
5.84448909757426,6.448560434297268,1.9101741520563547,0
5.383319432557134,3.739387136037746,0.45819102587863925,0
2.688535143821935,9.509413518658343,0.561363791644548,0
3.684489199165789,0.22202812987850318,3.6337028261465982,1
8.953460891531693,3.037238516318258,4.721661178741458,1
6.664630475268357,9.210694862995814,3.0537424747715476,1
7.873870267523328,3.2093543831944036,3.5792500776340552,1
4.543454230676551,2.522528338551704,3.8098487229857674,1
6.302472194561579,5.3422040993124735,1.3140713727647086,0
2.483836087432075,8.238017499205379,0.22614815460107462,0
7.054608302834863,1.0314676087836105,0.009363719595842923,0
4.276013337033373,9.430207096457362,1.7532464147700932,0
4.4254551481474556,7.95072881181164,1.2073211409960805,0
6.493223245768816,1.8125025555155194,0.31158862524592823,0
9.362806214689266,7.120079611981627,0.8976414624683338,0
0.6400634660862092,3.8495872263755713,0.622494491339739,0
8.247432373470076,4.022946780763187,4.574391903086852,1
2.9238311041219314,7.832900924388664,0.7013360672958446,0
4.439194545063778,9.627848079807322,2.688242319938396,1
0.21913328775008956,1.2665587284719393,2.9655297755608228,1
3.0104607783431305,4.206302368788194,2.717447288543169,1
5.026312426301304,4.809416080843035,0.4952821710799399,0
0.5617607734743901,3.7631181695499762,1.593991808752756,0
4.910957293831651,3.6318912371622503,0.25635166231576634,0
9.271106288584273,0.5226866756159654,1.97834957048158,0
1.0539321810780522,6.855386205626233,0.94299465635796,0
7.644407280755043,4.362144171200454,2.808162666421899,1
4.096710533759927,1.9479380264392676,3.4640419692455025,1
6.55173714524338,8.160335023020684,2.6605993010235323,1
2.6023659798522933,8.025607481516278,2.1711834830569785,1
1.5949226254135829,4.8639162808889385,1.9366671042834622,0
1.6046261427122643,2.984506611477605,4.208458840485019,1
0.7049194564314465,6.380927257964524,1.0968403253263503,0
1.8564670490124302,2.8815213577740306,3.671091697644344,1
6.642193849889683,2.3600793032371206,3.787411623700595,1
8.81690611843508,7.305146540263267,2.096000036353672,1
8.141256855911617,0.403252397209507,1.4865029961281966,0
6.851343098744841,0.9476847103459396,2.3527074302298763,1
1.1043186341110267,0.06788174023589777,0.4660696294634925,0
2.8918744629594983,1.5294318647542615,0.2296501611454499,0
3.0980687532246898,0.6899000871045946,0.5580159972594589,0
2.4995694639762123,9.958023677799186,0.9357251573111308,0
5.150056597097231,2.888099699540896,2.520884101690215,1
5.355538148796725,1.4926801266924727,4.24568318080561,1
3.568859751711102,2.4099625799591795,1.178211659998435,0
3.53789158736436,9.361255715401347,4.6758100537338905,1
8.285555979060813,5.201602230243957,4.774539544675017,1
7.892928483196856,3.648180963078569,4.794523024226026,1
3.0779583168074565,8.733914579092193,4.187813673381619,1
9.137884438732593,3.9499027054903246,1.819125203988603,0
9.52815017002506,3.350085699576958,0.3634195550131153,0
3.267425420300408,2.072825225497356,2.8440936588324743,1
3.5442494879305486,3.7779682390941147,2.7934072196861686,1
5.056341534219588,3.1668435601692604,4.249878835547978,1
9.411208125336735,6.7730395929814105,4.979955254730526,1
8.763194331423115,2.895827046707271,2.540786532800738,1
1.025679625835898,5.771997464225614,1.7260201551989214,0
3.927307432714162,0.658921650319727,0.929508557781335,0
5.533711897497718,1.9128915669651436,0.023999124086853674,0
5.0313247255154,4.074052716113488,2.545568462444396,1
1.9386306793689267,9.369492539086954,2.7775933335129785,1
8.588167711681546,3.7725198571569543,4.124692399086987,1
6.769407829968373,6.640741211998341,2.522884839464003,1
8.379083748518037,2.5508722242139816,4.582341743330282,1
8.587642793494721,1.2703357597323173,3.1404173828571773,1
7.483558536657398,0.5853660008005013,4.201681191105416,1
4.392106012497173,3.0541349854275133,0.7415086740387355,0
6.105467550154246,1.5766102679690797,4.276680651511573,1
1.6036540611974315,1.740104480161242,3.375719272219242,1
6.736454174749077,7.6075930838695,0.8511651621916527,0
1.7925325573928075,0.15838070944874216,0.9488177907300543,0
6.939495905101568,5.578101257354344,4.632503095221106,1
2.2959816075396864,3.794613805934648,0.16107680225186438,0
1.1755130015021997,5.065499999085472,2.3126747164785306,1
1.6528449014295743,5.628302372146029,1.5673764496705078,0
0.01992135219070268,3.133676944572782,3.3253871999921403,1
7.187396178535303,2.951088601842853,4.19814693784496,1
7.324010490583791,7.334018493349057,1.8018906077828478,0
5.149333499132594,8.712769881211571,2.134510436614186,1
1.613628010553837,1.9258163245852788,4.909588922507071,1
0.8355433751068975,0.9761876053514895,3.919582548396014,1
0.1912896643728701,8.977958063920259,4.486020654658957,1
1.657481769652207,3.4989546364739867,2.193811103258149,1
8.908555349831467,5.5131739066281416,1.1703810199205762,0
2.4153684170168175,3.5954314452000347,2.059317326932258,1
3.542713272172157,1.2580233634605131,3.5804595891575675,1
1.0534548448133318,5.893316449477281,0.5471520241798966,0
2.223613047481703,5.251408517696296,1.352345528082544,0
5.192245707802051,2.029935591911972,0.23317950230795192,0
6.077526830956526,4.518690446522778,2.161738691690658,1
2.4535231416621106,7.969475040156459,4.137228679898066,1
0.5773215922511721,5.904261031078914,0.123318441490054,0
3.9103286912739863,0.9691732706699485,3.37661763403583,1
2.342033709263341,5.480214972291351,4.662479372568698,1
2.195539232298019,7.027382992895869,1.1846393075559114,0
9.598628027134552,7.927034057807514,3.468174203638241,1
6.16300485925724,6.291175786342667,4.875509505501002,1
5.5687844317209585,1.5265816454078374,4.811390300762316,1
4.157751035233219,7.101732665901607,1.1746459651457164,0
4.289443334301443,6.773418460815163,0.5016552660603435,0
5.4090500383808084,0.2442688294063322,0.7414126894795797,0
6.964298070361073,4.117476675902432,3.5101783424107107,1
7.021460961818295,3.329502469623733,3.6287943772663778,1
1.7169390770544957,6.694120642536435,3.371182808140995,1
5.0011275207662695,2.161358123109207,1.6803919387111903,0
4.119580950341019,5.9087192297425855,0.8488846987906107,0
8.705269662693842,9.132059618141724,2.9038054597612657,1
6.314189212183764,7.9780237220860775,2.4184022287893328,1
5.325040664159818,9.214577362165304,3.6441707356115174,1
1.1539464217891737,9.7850596693269,2.2068003934281073,1
6.056378893234115,0.10670127006162766,1.693198473432342,0
1.1720390568023342,6.227412763774776,1.4673928867950718,0
3.3720657556575206,4.128393977589065,1.0573516002487326,0
1.4284196481433187,8.598544903351218,1.328731880933307,0
6.920736470243689,2.518147020091317,0.4741521942205068,0
2.062521138361526,9.810294891150761,1.7342850546444477,0
3.91859373188026,6.137079695437473,0.182849061814791,0
8.956747776187786,7.935374022288309,0.932069235831634,0
2.043163833989703,0.8559955282276832,3.7338522230971454,1
5.078050639587791,1.8345788475886504,1.6273449433831133,0
4.19271661166022,7.5840367303420315,3.3411850848867193,1
0.18124041045729733,0.21986522039323608,3.584420877986387,1
7.927581135728127,8.168779858937828,2.9059267136605675,1
0.6904590631459973,0.13949018691911452,4.7934887068269925,1
4.7425502097695365,6.5711883906127335,0.10719933311556629,0
5.606782949389499,3.6509392023180585,3.6932632529407106,1
6.284264566145871,6.1149485271919914,4.793933219702041,1
6.886316293078756,6.960314069891137,4.311358646764696,1
2.532723835227151,3.4247521918630417,0.8394634590250666,0
0.09978776658449373,1.0796244811083555,1.6341015312586604,0
7.2344366235491195,0.6964586774826564,0.862259199382327,0
5.356565993475786,5.889360225625478,3.0065418190735205,1
8.361177032072488,5.206553537341115,3.5609399098974617,1
8.213883629006943,7.422010091211325,1.585368846815291,0
8.433261677878832,5.097355100039371,2.6975328699214773,1
4.850946599795401,4.224457900308791,3.454602850355975,1
3.3362839583686563,3.9808717823623088,2.1066990830552417,1
7.9155820259137,0.26446902597667465,4.270077652277297,1
4.51294113029255,3.3555720169665717,3.8577496764390857,1
1.834421964034345,9.760201575244942,0.3233277192528533,0
8.549740195614744,8.735555762270888,3.1056264954541453,1
8.825598767723474,3.293780670342177,1.176627754798748,0
4.663097561401701,5.877954050663722,2.7875913233363763,1
0.7569972730978747,8.47296745535494,4.784442213164831,1
3.8782608991693124,4.412743367500687,4.395310022761251,1
8.035376594626033,0.1795786375015096,2.0225820155756584,1
9.017740285462287,0.7451046181864007,1.457569291721767,0
2.0347274249759586,5.103927213487066,1.172028722041295,0
0.6697361202527152,9.694393756758783,2.6625743487826004,1
8.773504531328387,6.932095422188677,0.5712422662902816,0
3.894049389788753,0.7091619143856953,2.746375040641243,1
5.417609642675632,1.8936087579186278,0.006668197453960079,0
9.680658120507589,7.7132314321685005,1.6192481537292243,0
0.6656472791422285,8.414397599562447,1.0996715691529064,0
6.483180074520956,6.176945861885908,4.85609394980391,1
0.7410542257486707,6.444231696298166,3.636211597849895,1
3.7546892846650035,0.28337450383384644,1.7482669023111885,0
8.038145451934467,8.285302595815086,0.46422543265310257,0
4.334722327556344,7.882752081708296,2.58400297345312,1
9.971823539029504,2.5903514410334716,1.0672394066302116,0
5.590592849466022,7.086767199655069,2.682147729491789,1
3.2116215263595347,2.148546064249981,4.176811770894463,1
2.2011132590475313,0.4033016105151299,3.078962760506927,1
3.5052053428616183,2.0113654259037728,3.168942097725011,1
3.725332737595508,1.786288767542995,2.7051514453140575,1
0.6871367772396098,3.3774799673484726,4.636328163157046,1
3.6957419942677316,4.184494971754581,4.659513422103016,1
4.642385197392249,5.085388914977079,2.563616005367761,1
7.227377522388046,4.767538755083281,1.528797435717522,0
6.56729484721608,2.7067460596528936,2.2979350293972196,1
7.087656552291542,0.29170668574074465,0.9327895609780784,0
0.08363681876857099,6.051016222371507,3.1817215765904465,1
2.1766739958053605,3.957448298473544,2.500461678911166,1
6.616842883998565,2.986721573875497,0.5165023890663994,0
4.839893681797472,8.669410428305124,0.9882389055980767,0
0.05313475668345946,7.467433077981598,2.3981597809976343,1
8.044946424318223,8.577655483724422,4.437944953594291,1
7.728095732903374,4.94982794712461,2.831953603155487,1
5.484191629935626,1.3093125212677748,3.407675001042354,1
0.6646332577627212,6.962214361212724,1.6951427487195487,0
7.665150495325847,2.0607377993717524,2.8570569652211715,1
5.8371358773136395,4.412296690917168,2.2368991131903373,1
7.8195997715795915,0.650007889488885,3.2956495631158034,1
7.517469923958404,8.253084024229825,0.25287783039505185,0
8.03002071957837,1.2594064104750058,2.466501081194796,1
5.1800806640462485,9.030975070493097,1.4799631257198347,0
1.40324518193515,8.642306022615571,1.6309253063895461,0
6.711574733796887,4.645827644392461,4.804587157790307,1
6.204737850519706,7.443682043039907,0.9134740635569139,0
7.422531871990872,6.194450738181533,1.5562262628929846,0
1.698810060507353,8.030756423377449,2.5494628786543587,1
1.9497519990028922,4.31805100785912,4.315134740748118,1
8.904095172193285,7.8580848424435,2.0833504160318523,1
7.499777984520708,4.62456817065148,3.719326404440855,1
9.08228488700323,9.409657878427938,4.281870491074012,1
7.587153211639207,4.863721008251476,1.5500817791092447,0
5.971553059903019,4.626192719337295,1.9637509176935497,0
6.5413273702787365,7.850718615635127,1.7827811184417812,0
8.891279239400099,8.21577691760838,4.164279043089605,1
5.7880675451194055,5.544891143211707,0.2217343097680058,0
6.323913243283874,1.797978134950754,1.5421054441434001,0
1.5647671600360058,4.677582309575795,3.397042787975649,1
4.739212201161028,9.680725029096784,2.8272174978267133,1
7.16397111958099,7.529861930391851,2.1814467964684714,1
2.709426983163654,8.111626038791321,2.6997411361069217,1
2.022541805245349,0.3282549881924013,0.9879229291415914,0
3.1382680822441555,4.678594626341599,2.153583108040052,1
2.4150062799283347,6.466211336575554,2.5085149208817454,1
2.1491263703639585,8.300326836280746,4.505945609773009,1
4.24850842868087,0.4927365358277147,1.3041758140198816,0
9.07838513883534,8.524388856418732,4.339142510824663,1
5.070596467387183,5.484009367419117,3.2212070041299095,1
1.8792038081532303,1.9731397057605993,0.10170415533800492,0
0.7697166938087407,3.172552164497,3.6231566844969683,1
6.961561451379252,2.8192955175156076,0.17775938774527544,0
3.827987644363878,5.308590342884758,4.986905634069066,1
8.218309465853594,0.5168567991113182,4.363183438455989,1
6.595107686407702,1.5853615849992353,1.4867187377002282,0
7.962414505413685,8.126930433757824,1.2870561509835272,0
2.7194603941844875,1.3260399074681106,1.9072054105280445,0
6.9235892246105815,2.3339626945812695,1.7808348265722151,0
2.640619846937188,4.533706056041574,1.8616890919269053,0
9.390684794502915,5.171208881133305,1.591382730597402,0
6.363742815333744,7.636104796141586,3.105667034241657,1
3.245118001753421,4.473324266661878,0.8213183186031198,0
2.6951186229227266,7.898646210355388,4.2299064622300655,1
1.909265850716435,6.183463070454574,4.062012420156576,1
6.946409588937278,1.1309973942382245,2.382416039276352,1
2.187156129979273,1.5633143839283858,4.263649826392738,1
5.953032659274891,4.370337254497708,1.2357253501514665,0
2.646350269253573,3.968893930890396,0.08782727851983474,0
6.619689447938686,7.435442696372946,3.096039625149115,1
8.149397285405392,5.807371397973519,2.2895470348235767,1
7.780252431446532,3.881330810022493,2.8358227314793534,1
7.608513309307817,1.7076028345038563,4.496697045092015,1
1.8772240569225207,2.2683710232549514,4.849627867829717,1
0.8838494698451871,5.75501018469059,3.1722656987780153,1
6.989488284873856,4.234388048997925,3.820277949262192,1
3.683472137943513,5.1492750886067205,0.41904216743582134,0
4.3234622640334734,1.7067743530223367,0.8035779244575281,0
0.31149092793391064,6.629062523445658,3.6660240247648828,1
2.595764492750492,8.52538740855967,2.15682728194001,1
0.3367640387446402,2.579395067869006,2.2298263520220285,1
8.791857726012477,4.915142258318266,1.543038408177183,0
2.4339668321853045,9.755273290209018,3.036781917388719,1
5.5733716957300805,3.332417405507276,0.925825227081013,0
0.3897932066113041,5.950463449237612,3.134581396569478,1
6.66847391305658,0.9019570020024437,0.8689942856761984,0
3.230273457540939,6.0601500247944315,0.319130173548568,0
8.979191869576658,0.8963177330461791,1.6517884434953052,0
8.881181889340358,9.592354353238221,1.1557017100492384,0
3.252906183617478,7.156626520723114,4.4449581927816615,1
9.009608956904678,7.881597881357064,0.274767269343133,0
9.961576734987789,7.041043607716368,0.8830684628706142,0
8.254156641239481,5.897290360764657,2.7435980279152474,1
8.448713477552289,4.499127810855054,2.4053359542373682,1
2.4900873610908993,8.583733797610623,0.2292600918735077,0
5.767023988577563,9.56835667543063,0.03626214007572237,0
0.6725591396736785,4.9903617290408135,4.940339709805749,1
0.9491793682166971,9.31535049155262,3.294173501794191,1
9.988926120332906,5.833329099885175,1.8270306545077841,0
3.2663924942591094,5.383841868964332,2.3521612383162065,1
7.481839120488464,4.544827329553566,1.3327506022714348,0
8.066650530268165,2.0928776153011985,1.7243689184660487,0
8.580232710072291,0.037196608180591895,3.2452223363410697,1
9.976282974021565,2.4150622685606127,4.414058994336854,1
2.414964852568678,5.097231716035652,0.9206501154059243,0
0.40350826859699707,3.7995995225975254,4.2018075269265935,1
4.11191517994586,4.484852280026338,0.6077831475913453,0
1.3008066982894695,9.806482195640495,1.074961117941956,0
0.22425889162055124,3.502723706693276,0.1858764402482299,0
3.604268271414861,4.521829393601079,0.7040593104649973,0
7.837382510752365,1.3351555135281956,4.586515727320252,1
5.661806912250709,0.47957732436987643,2.297193733091893,1
3.1277798921035407,7.754095145924946,0.38832930889176775,0
6.543420054927197,5.706831750719786,4.798634190194806,1
2.320181803088107,7.6070480604389505,4.39496153879325,1
0.14381446072085025,1.4986279888655163,3.7734126043407064,1
7.643533864364274,5.7182877118269095,4.66736395973779,1
6.237430848640091,2.5364247434137557,1.1006471041788206,0
7.6230262450096,2.280618169000199,4.181846465050432,1
0.3893801668766561,0.11526014052985256,3.449955981771531,1
8.371196278306522,1.303407235690719,4.348796247838441,1
6.195262000363034,3.0926811149969535,3.984557828713149,1
5.633953507126401,1.1687876059093905,1.732475315884125,0
6.246140481145316,9.858584404109376,3.871992685086278,1
8.644332468683642,3.086326485239507,1.3122815149244516,0
5.86936506558907,1.3032394670232816,1.6429608151402741,0
5.809503798881793,1.9908231282795774,0.5395285861148807,0
9.906791570657658,5.877032283414765,4.6753830799023435,1
7.56730167068568,0.6404352386478851,1.4550168170014077,0
4.422938054511353,8.624341301411569,2.6031123258572593,1
7.073970000329277,9.614996792371473,1.9566641823309632,0
3.892304716917885,2.467474206673809,4.799640602917508,1
2.28875462483499,4.500952685908594,1.675245854692412,0
5.968518768877594,0.2213445102949707,3.8927291071134453,1
9.281820981139514,6.407102247272215,4.2770807731559,1
9.291395200154627,4.139260580525889,2.1780324874048294,1
3.419052781054903,2.700584661015557,1.8908590722646563,0
5.276774662216949,2.0683711061660848,3.7387291046631397,1
2.116358985698612,6.540230776587604,4.56447990153117,1
9.956311094988834,4.162170310323145,3.7746586653611915,1
9.811179078679357,1.7965928902991202,1.135631827959328,0
6.495089297074474,6.891090814868241,4.441538737188527,1
8.044140596774733,5.650722830366936,1.9379083371841654,0
7.151001612837,8.586720549294961,2.8811470588896713,1
5.931582190394682,1.174758988764929,4.157178096463555,1
0.533479969888977,7.856666019444561,0.9419738370024611,0
4.54764342552661,6.73516786817259,3.9225506783877657,1
6.747863021674105,1.1501093682809782,2.9808139895533876,1
6.775316138836846,6.948207298717207,4.466708209138041,1
3.7312261842238357,4.415472888798304,0.8598520092177148,0
9.416919866580306,9.449847855558431,2.103411185204642,1
1.67357032236781,1.4161135061789931,4.1642154643341875,1
5.003594462155606,6.42833390815738,0.09615851728380087,0
6.908839765508228,3.8198004546294593,0.5610068338282143,0
6.971358058918092,9.568146705908777,4.952826063783673,1
6.486389567688155,3.299748952902765,1.4019708929517527,0
2.7528821345186016,9.621859094918001,4.877715968619767,1
1.5620656868662197,9.01485851100749,0.9126577550433695,0
6.3594032682671084,2.7038323531065633,1.8054722150366782,0
5.993021161394378,8.035417768264278,3.764347222517853,1
1.7935601028924097,9.95604201803506,3.2888920361908927,1
7.051391455705634,2.5266300217128235,2.905611999645278,1
4.551719917336564,4.3677716932331965,2.6494958790250376,1
6.6776059160315295,5.201807365667596,4.217202218323701,1
8.373670797701507,2.949311358038643,1.1747428141669636,0
1.6972842857692316,0.1526483964602976,2.212354634967592,1
0.1914486799683668,2.2012924419752666,0.7772614607822864,0
7.791025863957868,2.8193688434175845,2.979707978653522,1
6.096974251526159,4.435997013181872,1.2527221213566009,0
6.996395696221217,1.7110247841340187,1.6692103217169292,0
8.381549749886425,8.732543566916727,2.3562535831176405,1
8.028109348245005,7.049111327313361,0.13385292851563924,0
9.609201469288246,0.8520047755966198,0.4596896796041883,0
5.359350788521182,6.500924511399314,3.429646103541098,1
4.884956326599053,6.536564764056204,2.144849903587536,1
4.018871998907301,9.562211736436277,4.323951109999477,1
1.5369104284420454,0.030208713561612477,3.473360018220997,1
5.726072328820225,2.479324498058072,0.04050470823661223,0
2.7701252432597876,9.277914793753155,3.083561653835674,1
9.213075122129755,9.32133915398283,0.4686243302985821,0
5.8319080427709755,7.205864193706374,3.904665898952471,1
5.928401805081101,7.6576332104753995,4.95753844139251,1
3.5492466087701002,0.9148295792964711,2.6559939712075575,1
0.5198935197770749,5.138758347782336,3.413897500970652,1
0.3174376537298862,2.3158299128899937,1.1865708044737577,0
4.233351441531975,1.8121804361361726,2.1879887187689677,1
0.8456537809723785,8.103032991233325,4.280476661181918,1
6.068469555401391,1.3503813668054743,0.8371147387312561,0
8.809730056396575,4.686516369963853,1.3276780280688105,0
8.829148165187222,9.38578239586033,2.227168376430151,1
6.590454101322324,1.8583205556534255,3.56124445922007,1
2.1123183147293103,9.779934237382346,1.8794197739783691,0
8.629968313588721,9.94287985761059,4.638661398915019,1
8.860934353132082,5.556171546824029,0.47228525634359586,0
1.966535849529587,1.7014274017715791,1.8540209877242375,0
7.374260857706773,3.1610488794089564,3.5447706171421096,1
2.8651954892712297,4.2449283267653515,1.1299338283074623,0
8.026403123529297,3.093242243582229,3.2820656711483647,1
9.972378999036026,2.806355798765158,0.8210847911367297,0
0.30026005329392813,9.722297092163576,0.2799014243084319,0
8.973658657909318,1.5336482741574564,0.6050785837432443,0
6.226305335986581,7.333279087168623,4.649923915670674,1
9.733826191648213,0.004102894391748713,2.7587544146977567,1
4.650095175264276,5.9618266940237685,3.981728877398245,1
8.473879305713737,9.159430039540524,1.663272504525256,0
0.6239406859827723,2.87934094093219,2.9632932394272333,1
3.352790500782957,1.855259752577192,2.474760668524958,1
0.6701653775120997,6.516797948784269,4.72868979701147,1
9.753431334790704,7.126014072983931,3.737873180270552,1
8.169739072718368,6.880305189519813,3.6527131574828955,1
8.525474212459706,3.1931688002137406,0.23176634717139766,0
9.379652314338943,2.5220240215933085,2.7483483450184556,1
0.8510348611978535,9.559187999620441,2.3349572695090743,1
3.8559759251333334,9.232995082699295,4.639211333030973,1
0.7103488904400213,4.573166098928203,1.2867099409476612,0
2.107931015500286,8.461938661543734,1.3491672664554715,0
2.293657770376724,4.52323477634296,2.056731244407502,1
4.691072110475787,4.243890180725104,1.2168485670318803,0
2.685621674536426,1.5676294759929466,0.6459195890437475,0
1.009781068177611,4.2640605649197285,4.287074233254004,1
1.674910890941077,5.37416938599807,2.7913826220195794,1
1.4727556355209093,0.22504327428686466,4.306813594782834,1
9.730767979122984,4.441130051754064,4.15567382701848,1
7.592925069184736,7.813562183952003,1.4102117739483555,0
9.67761465269562,6.800460563742698,2.73868722162137,1
4.397404865079086,6.35156988863935,0.41608851370035227,0
2.783684816626566,9.095554284372025,4.576259420153792,1
7.982931972091867,0.1803200982523001,2.0213135753257654,1
3.262539180411468,5.570475861922342,1.968380919445107,0
2.9938337370534827,7.873488484097071,1.513776853089766,0
2.325059922078312,5.413353827012672,2.3033187235535193,1
1.2967897822423535,3.2389555258037914,1.2587969327272401,0
2.5646306101676597,1.3625056509197786,1.8742613639840227,0
3.553197484738877,8.875630718161913,3.9997352429244093,1
6.739942081457304,4.70762392387603,4.171277517925859,1
0.6256484221945158,8.781151969857014,1.5209123881425808,0
2.1050693966534295,5.8585212243316835,2.3450721527639393,1
8.090236402916764,6.741921166150008,4.369098881400261,1
1.4692192358377076,8.042611543784501,0.26336665914848567,0
3.4264514652252154,6.591555446001344,4.445724809978927,1
8.6465892185814,3.980548406789377,1.0959217282616585,0
1.5492531114344266,5.13633383928651,3.392696221071879,1
0.827368356181899,8.030455246758798,2.9127584819230012,1
4.845379950800108,3.736502963729842,2.7647037409462607,1
3.024195112785364,3.881214567684971,4.296801123764107,1
5.634083644838541,0.9569011605800115,0.5078607182233064,0
8.038048904834751,9.145844352217477,1.7351401266281803,0
1.3714848815274316,0.9103631494544173,2.691263731723828,1
5.80699084554285,6.482091774485559,4.056444269730199,1
5.055087603898639,4.131944788027977,1.0822154170583576,0
1.4407878601319957,4.056193902554424,4.014649206871381,1
6.2399848552898245,6.795518365726839,1.9981924124696788,0
2.7364041786077165,0.6709373262987872,0.944569282168477,0
4.878343185440125,5.937057829514346,3.7949322022174132,1
0.8227232427706188,7.720317859723548,0.4544945073727391,0
4.595840572136231,8.282127578865943,2.5738368703772148,1
3.0646346804282034,1.705303893937753,0.31937891930944207,0
8.223812111853544,8.974190500781736,1.782089275788938,0
0.5697872699736828,6.561460918474422,3.005383995031963,1
4.1860727491833,8.818548008206829,2.7805777074360654,1
4.58431424131438,4.852807171101983,2.0232770895233325,1
7.250060762991187,5.42033345097202,2.1452399698605786,1
5.74287575090211,9.19038277028671,1.1338477667538327,0
6.672123371941811,8.999095433546717,2.2794129421205147,1
7.770492856517562,4.48160873369002,4.766274278604171,1
8.622029736581888,2.7441263163568177,4.252264588918952,1
3.1387549672247053,3.9317043456426415,0.726164345381719,0
5.38022705363903,3.8776432852974976,0.14890393660460466,0
8.401080784391999,2.8686687498279397,4.667621563583153,1
9.894511309650564,2.685796043329666,2.633748749403738,1
8.895193110437631,8.610629364797195,2.6891891157465384,1
3.714672626243768,0.6986192068466168,3.9035899785326116,1
1.9516651721865041,6.776111820995942,1.5734448693566327,0
4.893925374065887,1.728200514564523,2.4095378441800106,1
7.416414518360423,3.4450589339406323,4.843314565733688,1
4.925690707532976,0.6154303413483686,3.3607434346620355,1
4.831808633136685,2.6997363685546203,0.7687251599789297,0
8.382304210818006,7.684210711172421,0.6661337399217665,0
3.6140377906718637,8.850153245472587,1.021323791665027,0
8.597946748116456,2.2152715190236707,3.8335583721035875,1
4.068048009517236,4.635478392589219,1.4768850192030802,0
3.282331056783394,4.703240479372064,0.10694423337539893,0
4.53989911199699,8.735753057597343,4.720871817528309,1
7.624469586748685,7.627990528758054,0.8485670819745533,0
1.2600202786399428,5.130772183680499,0.04779093074034291,0
1.9641921587201738,6.707472004717734,1.185658011916615,0
9.514448256630919,8.473550539093669,1.1751439355906683,0
1.7549162738135737,0.09538954025544943,2.1100262542286154,1
5.6772731793105455,4.028900310500486,4.601949157500184,1
5.793144666619378,9.072431672770787,4.39592458889549,1
4.896244620502448,7.403130308439514,2.28447277491214,1
6.447452485768186,5.428413743340746,2.0544995249590325,1
2.2982672579761845,5.2964452703513345,2.7750454323742564,1
5.526622677767482,3.477700976044378,1.2172700598588286,0
3.7217325524689713,5.205205336415145,0.2609249598318142,0
6.61667259629189,6.553831994634533,4.696120680856033,1
1.4122354337314946,4.18363038428793,0.9334949243858637,0
5.708774168394762,7.14153146392174,0.992003646228582,0
1.852703553833237,8.612322272603858,2.362301644269738,1
2.786430631150364,1.5468484818486117,2.4580667242016534,1
2.1870980032358323,4.5154702281742445,0.09217104850370972,0
1.828377798688171,4.080200912850811,0.7397736938698535,0
8.25710951560667,6.874648040497281,1.8907740928037087,0
2.857075676608903,2.4986746525792936,3.418653467552695,1
9.271237818644494,6.402509149522762,1.1420922841596792,0
9.699265253451909,8.77489241731488,2.1150722312088135,1
5.712604699370973,4.181315997936227,2.786725323582334,1
1.430011226657264,9.110156999792201,4.44296247311646,1
3.7454824337958126,9.931637389334785,1.6303525116356166,0
7.9773226334821405,1.0609204994795207,0.6677913293174176,0
3.673907286970705,2.3305318798485866,2.446361129488041,1
0.8701721830278875,9.503797514820931,3.7336080084203105,1
5.567849109281879,9.583276864813868,0.5492987852636672,0
8.451208514960348,0.977072753867585,2.123417458484802,1
7.959263871435024,0.1499850037713668,0.08892570631241714,0
1.7512314013035324,1.6110002325642225,0.16779590823625568,0
6.727646144124667,9.960127833822483,2.414766816083328,1
2.205042634356471,1.7999961661068686,1.490986490754647,0
2.1820753455217226,5.025476067220231,4.225536495027061,1
8.740717733051852,8.48417726430511,3.0107715306322715,1
2.4966895274023013,0.2040161068820634,2.2696648087149516,1
2.632473465180112,6.044889822584595,2.0396768552714817,1
0.006533907612995549,2.770254488696243,2.4862274009478162,1
8.706690341255177,8.623349164397316,0.2021941560633067,0
7.925948132091348,2.834611492640792,4.4639667821033,1
6.27328935090678,6.867557202819089,4.9915157786697915,1
7.502657639388422,6.742196324473969,0.9074356242934933,0
1.520485674244918,2.2149354885964003,0.6019148238730987,0
4.583235945875755,0.34799199868350117,0.7178873172429762,0
3.512193873487809,4.092495737853973,3.305135291171836,1
0.9377652625701649,2.891931519658697,3.3072041922538737,1
4.861304852149241,8.089777496137087,4.239620811392054,1
9.207396503426354,8.003641884553453,3.7591319421312663,1
0.4005911905069448,4.570239521926255,2.2484483668466986,1
2.9146091349379386,6.06512225323219,3.064276807826594,1
2.0754093620570346,6.0425951598692516,3.4414233518400392,1
2.381466536656963,8.271581484276233,2.563682351426126,1
9.084345518793754,4.250024141231975,2.3782549222581832,1
4.6806905423429015,2.7544667979050907,3.2254872282132663,1
4.662994129398188,2.650349181405475,2.787372744878269,1
7.605756424552823,5.361922792822042,3.2197115266795517,1
1.544922040049258,4.491482027322125,3.0642738698168195,1
4.872653541000508,4.401207709849362,3.5959828025682734,1
4.2998521412105974,0.9113733908970723,3.2140175439143803,1
5.969106905466561,7.186037406901956,2.5987124321863364,1
9.995577032504386,2.137366879819107,3.4089840564219327,1
7.694488940820471,1.9695363020872136,2.2474098259271402,1
3.978657030174272,4.127583202773934,1.2083561298630052,0
8.27553052274047,2.277783416178014,0.007091100669577299,0
1.7070836331248018,5.838582673080154,2.7998207357292157,1
0.30463686308960125,3.714633393344715,2.953276133043205,1
2.0444837246427303,4.489117225927901,4.860244823878571,1
3.4041155611425964,5.371693216040288,1.8073916704713777,0
5.105807574595599,2.0353552248180486,1.9706662141415587,0
6.151291405411998,1.557516228655298,1.0089979067109511,0
9.106057172144217,8.804219028736048,0.35267147618660954,0
5.0985400955045765,4.3372370283142105,3.864022464308703,1
5.012756446257294,4.120936096325392,1.248405321696625,0
0.5024300982298213,0.3561215027284148,3.0445243051501896,1
0.3491155265622381,4.9797630258739325,3.4388651777274077,1
5.511599619163721,5.541697216110001,2.3561834364582386,1
4.381786132483445,5.588408709546665,4.381760565135958,1
8.391803949802986,7.0703116932288435,2.218974204898644,1
1.6067958471184518,1.7748183499101178,1.4245431152088255,0
0.24971662117049598,2.5222313423061884,4.480077614808112,1
4.490387679301259,8.107304652304126,4.307821421249782,1
2.374785567522575,9.47170616843394,0.820199735382065,0
0.4961437333883745,1.3593274736732064,0.12980509176960475,0
7.24598286847629,4.976495545052182,0.44992778174810344,0
1.1159299995724747,2.1417625273958683,1.4327369927690854,0
6.083195000077717,0.6007316835498244,4.861299008708554,1
2.8104975016688916,3.255033381261354,2.792580765804125,1
1.7349605035502202,1.4368762518421274,1.8663086601463441,0
3.7975152291931744,7.0993307343424625,4.443580473063732,1
8.014457762229537,5.337254136714444,2.265681657392498,1
3.9209357690457267,1.4383447099031088,1.5761931420051056,0
7.507696492110557,0.09241588405514367,4.706097643728287,1
1.2548629679915069,8.081570490242127,4.24758833096339,1
7.727714196650791,1.7619440616424753,4.218341877097204,1
2.3693332490664867,6.06216642220766,2.5614237152510655,1
6.773931298888728,3.3692191307674557,3.947191994077275,1
5.657815548409964,5.854859383150356,0.8967667963227594,0
9.291447172116873,3.15653626982324,2.866114787781218,1
3.87322517975314,0.8693956069225417,4.919229614237729,1
0.6616518883444045,2.229500085577536,1.4547921525898082,0
0.19155485551252904,1.880585664790756,3.971761646238376,1
8.26858560972753,4.280193524396438,2.452392036040336,1
5.247356376614322,6.582837834261573,0.19902841611043665,0
7.752440518349493,2.6380607494635755,3.815096989078337,1
2.3442560001151467,0.12069935300617951,0.842845721960564,0
3.450837455132337,5.189373642647569,3.157367835663751,1
0.3010387221131894,6.05759489358972,0.4283209702348645,0
9.614923245741121,9.628704940018096,4.734336987479824,1
6.678679067008134,5.894708030932469,1.4586194359018045,0
9.332050877593062,4.711725593781418,1.1323234583869746,0
2.6549640742907235,5.7340162589770385,0.6456820203316715,0
6.114636112256608,9.27900629862027,4.730010966695239,1
6.784999682926378,8.283781456016463,3.559518712206526,1
3.1754970025758844,3.22978733363808,3.7083044435904435,1
8.4810923501563,2.372543636571373,2.497022806901223,1
9.471614629002477,2.626336123660736,2.373638926352417,1
8.848551176960044,5.04421039715213,0.5501062149573832,0
7.390669759393726,7.4404945122857775,2.799205477919959,1
2.7746467972495403,5.032192071829621,1.2345824755439523,0
2.8161604210563174,0.6779639582811259,4.885726664002029,1
9.633603204460378,7.235807004399809,3.9829047000757365,1
0.10284495935692028,8.059701286709538,2.064960300964438,1
7.160499732421445,2.8949786511971967,0.7567062934576652,0
7.062461625552622,6.641257392833504,3.9266584556939197,1
6.226895409497974,4.265919010543934,0.61026883540658,0
9.901088460868658,8.891193557274429,0.9466687674853524,0
3.1187943576372525,8.452255581607398,1.057602588721137,0
3.399718637932482,5.254319983096423,2.784453191365472,1
0.7893940294655555,6.915055458135945,3.9352832699518316,1
4.4279813654373745,8.83349701022104,1.571574393623461,0
2.610485262348481,4.957170100782755,0.42334907137644706,0
3.433867021776442,3.1325074048882193,2.3226923176220957,1
8.345717902556277,7.536661379095813,3.7405512057996777,1
9.354845135274957,2.2006625478469175,1.1083192154369415,0
1.8573307200518563,3.8853114800604205,1.099622740196871,0
3.7250893155346585,8.657272371067936,4.736135136733554,1
9.286305621153941,7.244223402693151,4.770768635595889,1
0.6180846068922263,4.038110052474993,4.952328660307882,1
0.9236052811137851,2.147445024083574,4.038298007873901,1
1.6279098920622936,3.5596839083223655,0.9409208458397278,0
5.952128341268748,2.84104149227433,1.0599076039963067,0
1.5047227100599747,1.7608928794385392,1.70112620761196,0
9.680763814507335,7.4333291356565665,1.5906626566674542,0
4.467145272585204,2.5206988685017153,4.782638745390045,1
5.015179603501664,4.541674701677638,3.945369914408468,1
2.466586158054065,3.8585944683610904,3.6200439608077692,1
4.709602524347335,9.820773786356309,0.9298161202906591,0
6.619136326370115,3.9109224414822052,4.547627796811648,1
7.511771369540428,0.799824827967548,4.139351897530869,1
7.53868082709913,0.8982575257208403,0.8182092066396185,0
5.7789111269408835,5.907537213530648,4.355851659804863,1
9.043597749938572,5.993635517382656,1.3612376818523564,0
8.174078473061094,4.18758990482655,0.4043487291605302,0
7.570481146986254,4.318436923120297,3.28411153257105,1
0.5560552168046062,0.5393258284087121,3.2690232969216533,1
0.06877962219649314,5.165465103892623,0.47466004782809046,0
2.1244727719547294,5.047394753803517,1.594259044682912,0
6.635235939134523,1.4954931855694453,4.964072311277693,1
4.111974888825458,1.0383938611092758,3.3921333350436846,1
4.0240625929931175,1.235724905994905,3.650375833016646,1
8.845868882296138,1.0102824649125852,1.0645864280215283,0
8.955628481318387,6.097081955367598,0.3939103550195716,0
9.091752640535857,1.9648265240291862,1.3845084487046884,0
3.138780765150273,2.5143015218746347,1.24449192596596,0
6.910558127392617,1.7357214415143973,1.1727205037402655,0
2.7163318127436966,9.57835304448503,0.9637716094351978,0
1.9060983307444979,8.546174631518355,2.873778453277022,1
1.8463245734736922,2.3049483735152085,1.6405173792091088,0
3.4210762086359403,3.27566293922126,4.101725075237653,1
4.299576197798217,2.098928423049972,0.91973708923692,0
8.309491710550684,4.918759594608238,2.3231353543427224,1
1.198910934727121,0.19610532474253595,0.06828918213039992,0
7.349258473948942,6.713680088967957,2.4084116122759602,1
5.314549141893053,5.231581498176416,0.27919110438237194,0
2.879453426759925,8.986389283011032,4.888617559363218,1
4.928195845328246,1.6439268432841414,3.952960643252064,1
2.9994206977702262,8.041092460611317,2.450557383182277,1
5.96081955238306,7.919610144667157,0.4329367908967513,0
4.338439228552442,1.2718118921688693,2.9622272039520716,1
1.6440552907887873,3.985592241441276,3.7938187535093877,1
1.1658307455569672,1.701526411445169,0.9535862650237265,0
5.466956820721301,2.5472050045754893,2.8410417039374543,1
9.024130332861034,2.6324617483054435,4.07105449191434,1
3.4395768655768553,5.562363940257727,3.8412388882315818,1
7.330001072226232,4.114109317604655,4.014960089335765,1
6.586613549397669,9.477328040063053,4.396617124348599,1
9.31554914309481,1.2637014194700513,4.688410510797351,1
8.209810172991409,9.736921348501987,2.0276057760176798,1
5.66605258905463,2.3063864021426395,2.8438455126143865,1
6.570304982341073,7.728739363818531,3.9532976302280542,1
8.983864665840349,3.389699261728214,3.485699069728916,1
3.995187845869348,1.430813954173139,4.977601141321894,1
3.2679470585777737,8.5788918524624,0.0683882555232207,0
0.10811083635196339,3.088608992364632,1.7756660765789534,0
8.265510741914643,6.588554042268422,1.4051396313510123,0
8.009807004033648,5.664436850866266,1.311579250827673,0
1.0445451810015138,4.717563093908743,1.112648912494429,0
5.768573811327002,4.958194726485391,3.545619204076145,1
4.639816981668874,7.322379140922876,0.42379736637660925,0
1.1870909550911146,0.8777291412344057,3.7080441697166915,1
9.805682270607235,6.681806619579051,3.4671292100813673,1
2.1469588746335546,8.958121013985787,1.254020662504482,0
0.6723418009056115,0.5778819701986415,1.2641689158258063,0
5.948473795019096,1.4065333923366674,3.144302926722511,1
7.3886667713303265,7.166319367020314,3.810855527418389,1
0.32443446047186963,4.372816482446176,4.3824280654368275,1
6.587176387270222,4.035486208136883,4.260697819272378,1
5.322918759514544,1.3696663454423585,4.824414970819266,1
1.0326500887504841,5.067700407177881,2.9069244766825557,1
1.7252387694636206,1.2654531119637724,4.5432778067017985,1
5.679742973160805,4.766204563105404,4.042566366302054,1
2.9635761351328838,7.636152989616567,4.473338121570068,1
9.38315728651316,2.582643578871635,0.05813300642683317,0
8.187402294840508,4.807861681797273,4.829514959329055,1
9.835672065136631,9.920159693968357,2.3676508142323915,1
2.5967083895041396,6.866504233540373,3.9909149478742147,1
9.69723632797977,8.413567713051986,0.6360205966889043,0
4.312338697915578,4.148476065605458,1.9797054790698705,0
3.4751879531375462,7.678609231258553,1.3573033151049545,0
0.5034952696935324,0.40509172941321836,1.4582938525046851,0
0.5276525785960262,1.2291118254224498,0.6162780997544087,0
6.920112559466547,2.0307059292006215,4.028819162715035,1
4.579289944340279,4.019519246152195,0.046211572905390796,0
2.265216260361057,8.457448783257632,1.5625272849260123,0
6.139703063252327,3.462660507879305,0.8720527160820751,0
2.528581182501112,6.546211935154629,2.9451947030417025,1
5.776317543444226,7.093142948034834,1.2712620130727192,0
3.5920874698269034,5.861823540883414,1.2949922726404983,0
8.23552226611819,3.572419681701362,2.4416907199765934,1
8.206961607667793,5.770533417135443,3.2634451967046285,1
4.773503981224013,3.422655927897462,0.6065235228258181,0
3.508191093350156,0.8387373855201208,0.8775572623274808,0
3.6255979655909454,9.928039781860145,1.235873722972588,0
8.05714525668218,1.271824536325109,4.868741070589802,1
3.28179482797612,0.7234838383605735,1.9857624997146017,0
2.09059373706846,8.78530749207156,2.9949504531551323,1
0.8468834187530683,3.018346608928951,1.2077140635798895,0
4.666931208844084,6.502969740735076,2.4522976257874394,1
4.821320989198419,3.2900572966223285,0.37059587192979027,0
8.409087104029071,3.9145427079447117,0.1737107296116347,0
2.2123869644606398,2.621129720167965,2.343667634107301,1
3.809912736683999,3.430440057930102,1.9932964375920603,0
8.084057388936909,4.107004005865431,0.6844015984591384,0
8.236236107489734,7.204160690923429,3.4380071446036684,1
3.846110759787682,5.115361942347918,4.964517454496322,1
4.591240232866809,9.43565217156977,1.9782341059835624,0
3.0328589084928295,0.4188039383877551,3.1227931795869726,1
9.32554878419312,5.030683226320281,4.814879711822428,1
1.186437657415803,5.842247888317181,4.157674862234376,1
9.3374942300147,9.20196986074274,2.3177611165134286,1
6.838664518353433,0.49158523621427586,3.6874474222995968,1
5.315721526867312,5.73499584935216,0.6406752012526201,0
0.32659060784495875,8.53629928527957,2.560519277318996,1
4.755961918220083,2.4192772811923655,1.3953013858996828,0
4.077481050027323,8.762923485239375,0.8058184394808054,0
1.6121881197512256,0.19043409274291823,2.131404531272674,1
6.564096035006569,7.324546291337297,0.6550727721680721,0
9.711509073682858,9.33113221168653,3.494925540872428,1
5.621888110645251,6.571976616400622,2.2812002202666775,1
7.147532764439458,4.39029243980448,2.6557231628233193,1
0.6845045256601678,0.44881016472718027,0.7318796933407851,0
4.176669958169947,9.201138133226287,0.6988583054674724,0
1.1635848516449587,4.702962226915748,2.9170771763006202,1
6.127958355365104,0.2899674433594801,4.925048739147232,1
9.384821582141546,6.898210713287619,0.4812529161886281,0
6.617777324716386,4.818372535762582,1.4286571428289063,0
0.7680304831442153,1.2434531744241073,4.347295582689438,1
3.5466620498508283,2.1427180931025958,0.3613600612761847,0
5.506633794408515,0.6449068045584627,4.3794286068347565,1
4.032077561332522,5.742935397085736,2.621429916873756,1
8.336440104751723,6.220294792520092,2.0413338696321293,1
8.146710047099893,5.057422983554444,1.5484028217572794,0
6.118310201032214,8.17102133002615,1.4855857906392096,0
3.7345794513270523,8.610088213080136,1.5290129122473939,0
2.5533637376324414,6.1562439668312665,4.424015404800979,1
1.0587431821312931,0.12756479707430546,3.6189761508739275,1
3.5489768348655404,6.952296557477356,3.348615039155753,1
4.1317251720771955,4.179992169203516,3.993745744760004,1
6.758229251040736,5.65557483226387,1.285573315020725,0
6.581598242975735,6.490806020188844,3.0902140604087784,1
0.7010813964125695,3.5023661432707676,2.300331194789755,1
3.952593154311578,9.170985051717942,3.912208176000967,1
1.8177886721736192,1.339748667497812,1.5462805523664276,0
1.568127053168057,6.715118072810374,3.215893084349479,1
8.27302149737246,0.04359579956580428,4.411062059086567,1
0.4191521671625753,9.246511054051808,2.0107523809746435,1
4.191828759021213,1.125041332380915,0.33311043683730723,0
1.682036557665182,0.9488423014757463,2.580254111708964,1
8.79330215678474,3.3300763305224423,1.7298624390351298,0
5.570405132750351,3.735662860390806,3.361126902735875,1
2.3138063637684803,2.143000723228786,4.75516462374303,1
5.024272871663764,5.851216609271247,2.428041589984235,1
7.314863597031158,4.4291409804196356,2.3309511507776692,1
9.581180089194337,0.3417558904108742,3.2729240009573015,1
2.2044600424541896,3.196520622553006,0.5174875179678384,0
8.861817721293452,8.104329135731705,1.267530944625073,0
9.343041141674902,6.897015348618686,4.594896627501993,1
9.164205445320663,7.248708535798805,3.3497130668188313,1
6.354143568619098,6.981169240835236,0.06722021991708127,0
6.298206544347077,3.109730213830333,1.0231273627950994,0
4.032106331838228,0.9966392207677588,3.4141863301444952,1
7.523978823037879,2.72467184033096,3.821996012812871,1
5.312940183509319,8.317853001851592,4.19929786337021,1
6.7743807122829445,9.804707977830711,1.4608840169102244,0
4.284579038487955,4.938470147415614,4.655142981387813,1
7.31496464043139,0.0970035492304222,2.764734467889462,1
8.24471517604549,1.4004481213422904,3.4826951119394645,1
1.4643625660281612,3.220805753162658,2.98369431389954,1
8.32929715574228,5.785853485929497,0.6137002733731023,0
5.402965317903073,0.7509364580531397,4.815573296924399,1
8.446659090902243,9.433572987098817,0.6143778994707633,0
4.313017063410146,3.6508367328440072,1.2744097820559181,0
3.79040485383035,9.125842179248231,4.068139401114901,1
9.150607325172224,7.805218027570218,3.0929848075055073,1
2.5116926754840128,7.554372725155812,4.190745826881785,1
8.442123252861432,6.06719579782232,2.5786809418702243,1
4.840205725094041,6.267838170518446,1.8849661768331742,0
5.140954425512597,6.380032352162481,4.6092274977389245,1
3.0846828148948404,6.287213870255821,0.18126158757397426,0
5.730422006190157,5.537282313983613,4.28065110176523,1
3.252111962762113,9.864140184828889,1.154088925938908,0
0.3926941424165231,7.322905674256961,4.243681638769839,1
2.7199860534435603,7.769463883925212,0.695983067084428,0
0.06379043406590679,8.724628150836741,2.9010948184527026,1
9.783547870568567,2.1563976272584915,4.44053959505736,1
9.657472098197475,0.8380415909506078,2.3676982344944526,1
3.9515529747230502,4.828944365985986,3.732833369016965,1
7.28370854339646,5.140806956192732,4.023358089277792,1
3.45806098410425,8.291817799499178,3.682471043583896,1
6.710931570859761,4.437835792823357,4.6266486843729915,1
8.05430043045979,5.708530255443128,2.234171152599643,1
9.467562446922408,5.270709385134583,0.8656271958257789,0
4.00212275849672,0.38202783757391057,0.23905531851239892,0
7.832979829560477,6.15214896596914,1.2322993481875255,0
2.659284506321188,8.280432857742522,0.7159875194012105,0
9.903323037936483,1.5750054807580383,2.7897437071724025,1
0.2576959876435114,5.943317339265958,0.92472668605866,0
6.035288065011209,5.936105444464143,0.1946685364468559,0
6.595059816513271,1.6418496405635874,0.1799491443433393,0
6.880455570741288,1.2346357373073602,4.157847491824308,1
1.2038757878908901,9.800519429764847,2.957249657215124,1
9.385297834731304,3.9371916965303755,1.790426509466891,0
1.811832790500828,2.2742172872352926,4.471140213701235,1
6.2275340323984105,1.7132454445437495,0.350983057038568,0
2.2267607912308494,6.676017135832351,4.901610363639129,1
3.0721641702127087,6.094452973272788,3.081458951272305,1
5.464585417281244,6.435521229874174,0.9173212698442423,0
4.171934185645765,0.8800602751145226,3.3953454948848427,1
1.6022560097650629,8.93534583498437,3.816906298917813,1
1.7093640242084829,3.892663968090483,2.1467139168538725,1
4.181447881627997,3.1336940643035796,4.308163031227737,1
7.572829782755007,4.623614472477392,0.7536620364823515,0
8.979646468477885,3.9006606574762825,1.3941879178880416,0
0.8412766225938284,8.63577003139146,0.46746180791994885,0
3.9310390755940103,9.29260975197892,1.0543892030367608,0
1.0024556372287663,3.034532164496062,1.1936440595557252,0
0.16592480632597884,8.639358074599548,4.5881659546085505,1
6.617186826439566,7.815231295330671,0.390548443755781,0
6.024494419665878,9.308076723447618,2.137075600938547,1
1.630191138148862,2.4575031218588785,2.6619934361345647,1
2.3381283309306413,5.769591501209791,4.493465269010804,1
0.2370775364451838,2.7454458474044463,4.988481093306067,1
8.349472056944037,8.240944904843742,3.766940574599179,1
9.746905960485515,0.05324190571064258,4.8539549528451476,1
1.354595367946908,5.648191628863961,3.9355056626793687,1
2.314752137652981,3.39203431271918,4.816013204857083,1
8.68409523946934,3.2268370707782026,3.5363536297222757,1
9.264637979561849,6.4490632386491695,0.39881712725535534,0
4.196273828068104,8.51484449313994,2.0096009349633825,1
0.5062247226907413,6.091953913933263,3.232986419012352,1
0.393918336928194,8.531729786467224,1.7535925472712548,0
5.739498660690105,2.6459711188102997,1.3669195905688931,0
